-77.0106 0.4760 75.3133
-77.0105 0.4802 75.3135
-77.0105 0.4780 75.3138
-77.0104 0.4844 75.3141
-77.0104 0.4827 75.3144
-77.0103 0.4818 75.3147
-77.0102 0.4801 75.3150
-77.0102 0.4799 75.3153
-77.0101 0.4780 75.3157
-77.0100 0.4778 75.3160
-77.0099 0.4790 75.3164
-77.0099 0.4782 75.3168
-77.0098 0.4793 75.3172
-77.0097 0.4805 75.3176
-77.0096 0.4840 75.3180
-77.0095 0.4846 75.3184
-77.0095 0.4775 75.3188
-77.0094 0.4782 75.3193
-77.0093 0.4752 75.3197
-77.0092 0.4762 75.3201
-77.0091 0.4765 75.3204
-77.0090 0.4802 75.3209
-77.0090 0.4809 75.3212
-77.0089 0.4754 75.3217
-77.0088 0.4805 75.3221
-77.0087 0.4822 75.3225
-77.0086 0.4775 75.3230
-77.0085 0.4804 75.3234
-77.0084 0.4846 75.3238
-77.0083 0.4783 75.3243
-77.0082 0.4813 75.3247
-77.0082 0.4839 75.3251
-77.0081 0.4791 75.3256
-77.0080 0.4821 75.3260
-77.0079 0.4763 75.3265
-77.0078 0.4806 75.3269
-77.0077 0.4845 75.3274
-77.0076 0.4802 75.3279
-77.0075 0.4836 75.3283
-77.0074 0.4770 75.3287
-77.0073 0.4829 75.3292
-77.0072 0.4840 75.3296
-77.0071 0.4807 75.3302
-77.0070 0.4821 75.3306
-77.0069 0.4755 75.3311
-77.0068 0.4787 75.3315
-77.0067 0.4823 75.3320
-77.0066 0.4777 75.3325
-77.0065 0.4830 75.3329
-77.0064 0.4769 75.3334
-77.0064 0.4845 75.3338
-77.0063 0.4793 75.3343
-71.1161 2.3142 75.3353
-77.0061 0.4842 75.3353
-71.1159 2.7675 75.3361
-77.0059 0.4775 75.3361
-71.1158 2.9776 75.3365
-77.0058 0.4776 75.3365
-77.0057 0.4767 75.3368
-77.0056 0.4834 75.3374
-77.0055 0.4842 75.3379
-77.0054 0.4805 75.3384
-77.0054 0.4761 75.3388
-77.0053 0.4767 75.3392
-77.0052 0.4747 75.3397
-77.0051 0.4782 75.3400
-77.0050 0.4797 75.3405
-77.0049 0.4766 75.3410
-77.0048 0.4821 75.3414
-77.0047 0.4820 75.3419
-77.0046 0.4779 75.3423
-77.0045 0.4739 75.3428
-77.0044 0.4739 75.3432
-77.0044 0.4776 75.3437
-77.0043 0.4748 75.3441
-77.0042 0.4834 75.3446
-77.0041 0.4744 75.3451
-77.0040 0.4758 75.3455
-77.0039 0.4820 75.3460
-77.0038 0.4799 75.3465
-77.0037 0.4823 75.3469
-77.0036 0.4812 75.3473
-77.0035 0.4742 75.3478
-77.0034 0.4815 75.3483
-77.0033 0.4795 75.3487
-77.0032 0.4823 75.3492
-77.0031 0.4819 75.3497
-77.0030 0.4753 75.3501
-77.0029 0.4818 75.3506
-77.0029 0.4806 75.3510
-77.0028 0.4740 75.3515
-77.0027 0.4824 75.3520
-77.0026 0.4832 75.3524
-77.0025 0.4827 75.3529
-77.0024 0.4803 75.3534
-77.0023 0.4810 75.3539
-77.0022 0.4779 75.3543
-77.0021 0.4804 75.3548
-77.0020 0.4791 75.3553
-77.0019 0.4739 75.3557
-77.0018 0.4826 75.3562
-77.0017 0.4813 75.3567
-77.0016 0.4785 75.3572
-77.0015 0.4832 75.3576
-77.0014 0.4813 75.3581
-77.0013 0.4788 75.3586
-77.0012 0.4746 75.3590
-77.0011 0.4801 75.3595
-77.0010 0.4789 75.3600
-77.0009 0.4819 75.3604
-77.0008 0.4785 75.3609
-77.0007 0.4754 75.3614
-77.0006 0.4802 75.3619
-77.0005 0.4739 75.3623
-77.0004 0.4788 75.3627
-77.0003 0.4741 75.3632
-77.0002 0.4796 75.3637
-77.0001 0.4764 75.3642
-77.0001 0.4799 75.3646
-77.0000 0.4740 75.3651
-76.9999 0.4815 75.3656
-76.9998 0.4762 75.3660
-76.9997 0.4813 75.3665
-76.9996 0.4753 75.3670
-76.9995 0.4820 75.3674
-76.9994 0.4757 75.3679
-76.9993 0.4804 75.3684
-76.9992 0.4751 75.3688
-76.9991 0.4819 75.3693
-76.9990 0.4752 75.3698
-76.9989 0.4794 75.3702
-76.9988 0.4755 75.3707
-76.9987 0.4789 75.3712
-76.9986 0.4748 75.3717
-76.9985 0.4779 75.3721
-76.9984 0.4827 75.3726
-76.9983 0.4792 75.3731
-76.9982 0.4833 75.3736
-76.9981 0.4768 75.3740
-76.9980 0.4801 75.3745
-76.9979 0.4763 75.3749
-76.9978 0.4795 75.3754
-76.9977 0.4754 75.3759
-76.9976 0.4787 75.3763
-76.9975 0.4822 75.3768
-76.9974 0.4758 75.3773
-76.9973 0.4819 75.3778
-76.9972 0.4756 75.3782
-76.9971 0.4792 75.3787
-76.9970 0.4829 75.3791
-76.9970 0.4760 75.3796
-76.9969 0.4820 75.3801
-76.9968 0.4749 75.3805
-76.9967 0.4811 75.3810
-76.9966 0.4741 75.3815
-76.9965 0.4782 75.3820
-76.9964 0.4814 75.3824
-76.9963 0.4772 75.3829
-76.9962 0.4804 75.3833
-76.9961 0.4735 75.3838
-76.9960 0.4776 75.3843
-76.9959 0.4737 75.3848
-76.9958 0.4766 75.3852
-76.9957 0.4825 75.3857
-76.9956 0.4756 75.3862
-76.9955 0.4789 75.3866
-76.9954 0.4748 75.3871
-76.9953 0.4779 75.3876
-76.9952 0.4808 75.3880
-76.9951 0.4769 75.3885
-76.9950 0.4808 75.3890
-76.9949 0.4742 75.3894
-76.9948 0.4777 75.3899
-76.9947 0.4810 75.3904
-76.9946 0.4774 75.3909
-76.9945 0.4806 75.3913
-76.9944 0.4737 75.3918
-76.9943 0.4775 75.3922
-76.9942 0.4743 75.3927
-76.9941 0.4781 75.3932
-76.9940 0.4815 75.3937
-76.9940 0.4731 75.3941
-76.9939 0.4798 75.3946
-76.9938 0.4794 75.3950
-76.9937 0.4765 75.3955
-76.9936 0.4806 75.3960
-76.9935 0.4739 75.3964
-76.9934 0.4803 75.3969
-76.9933 0.4739 75.3974
-76.9932 0.4777 75.3979
-76.9931 0.4820 75.3983
-76.9930 0.4760 75.3988
-76.9929 0.4798 75.3993
-76.9928 0.4741 75.3997
-76.9927 0.4787 75.4002
-76.9926 0.4824 75.4007
-76.9925 0.4762 75.4011
-76.9924 0.4827 75.4016
-76.9923 0.4744 75.4021
-76.9922 0.4811 75.4026
-76.9921 0.4747 75.4030
-76.9920 0.4785 75.4035
-76.9919 0.4820 75.4039
-76.9918 0.4785 75.4044
-76.9917 0.4819 75.4049
-76.9916 0.4742 75.4053
-76.9915 0.4780 75.4058
-76.9914 0.4743 75.4063
-76.9913 0.4777 75.4067
-76.9912 0.4813 75.4072
-76.9911 0.4774 75.4077
-76.9911 0.4816 75.4082
-76.9910 0.4747 75.4086
-76.9909 0.4810 75.4091
-76.9908 0.4750 75.4096
-76.9907 0.4792 75.4101
-76.9906 0.4828 75.4105
-76.9905 0.4746 75.4109
-76.9904 0.4812 75.4115
-76.9903 0.4745 75.4119
-76.9902 0.4781 75.4124
-76.9901 0.4747 75.4129
-76.9900 0.4788 75.4133
-76.9899 0.4824 75.4138
-76.9898 0.4764 75.4143
-76.9897 0.4797 75.4147
-76.9896 0.4733 75.4152
-76.9895 0.4802 75.4157
-76.9894 0.4824 75.4161
-76.9893 0.4771 75.4166
-76.9892 0.4807 75.4171
-76.9891 0.4744 75.4175
-76.9890 0.4808 75.4180
-76.9889 0.4744 75.4185
-76.9888 0.4784 75.4189
-76.9887 0.4818 75.4194
-76.9886 0.4783 75.4199
-76.9885 0.4814 75.4203
-76.9884 0.4748 75.4208
-76.9883 0.4785 75.4213
-76.9883 0.4813 75.4217
-76.9881 0.4781 75.4222
-76.9881 0.4821 75.4227
-76.9880 0.4765 75.4232
-76.9879 0.4782 75.4236
-76.9878 0.4753 75.4241
-76.9877 0.4797 75.4246
-76.9876 0.4736 75.4250
-76.9875 0.4774 75.4255
-76.9874 18.1809 75.4260
-76.9874 0.4809 75.4260
-76.9873 18.1775 75.4265
-76.9873 0.4775 75.4265
-76.9872 18.1818 75.4269
-76.9872 0.4818 75.4269
-76.9871 18.1754 75.4274
-76.9871 0.4754 75.4274
-76.9870 18.1788 75.4278
-76.9870 0.4788 75.4278
-76.9869 18.1829 75.4283
-76.9869 0.4729 75.4283
-76.9868 18.1774 75.4288
-76.9868 0.4774 75.4288
-76.9867 18.1806 75.4292
-76.9867 0.4806 75.4292
-76.9866 18.1774 75.4297
-76.9866 0.4774 75.4297
-76.9865 18.1810 75.4302
-76.9865 0.4810 75.4302
-76.9864 18.1746 75.4306
-76.9864 0.4746 75.4306
-76.9863 18.1779 75.4311
-76.9863 0.4779 75.4311
-76.9862 18.1746 75.4316
-76.9862 0.4746 75.4316
-76.9861 18.1785 75.4321
-76.9861 0.4785 75.4321
-76.9860 18.1718 75.4325
-76.9860 0.4818 75.4325
-76.9859 18.1754 75.4330
-76.9859 0.4754 75.4330
-76.9858 18.1690 75.4334
-76.9858 0.4790 75.4334
-76.9857 18.1724 75.4339
-76.9857 0.4824 75.4339
-76.9856 18.1688 75.4344
-76.9856 0.4788 75.4344
-76.9855 18.1719 75.4348
-76.9855 0.4819 75.4348
-76.9854 18.1682 75.4353
-76.9854 0.4782 75.4353
-76.9853 18.1712 75.4358
-76.9853 0.4812 75.4358
-76.9853 18.1744 75.4362
-76.9853 0.4744 75.4362
-76.9851 18.1708 75.4368
-76.9851 0.4808 75.4368
-76.9851 18.1715 75.4372
-76.9851 0.4815 75.4372
-76.9850 18.1684 75.4377
-76.9850 0.4784 75.4377
-76.9849 18.1719 75.4381
-76.9849 0.4819 75.4381
-76.9848 18.1649 75.4386
-76.9848 0.4749 75.4386
-76.9847 18.1711 75.4391
-76.9847 0.4811 75.4391
-76.9846 18.1646 75.4395
-76.9846 0.4746 75.4395
-76.9845 18.1676 75.4400
-76.9845 0.4776 75.4400
-76.9844 18.1633 75.4405
-76.9844 0.4733 75.4405
-76.9843 18.1666 75.4409
-76.9843 0.4766 75.4409
-76.9842 18.1595 75.4414
-76.9842 0.4795 75.4414
-76.9841 18.1620 75.4418
-76.9841 0.4820 75.4418
-76.9840 18.1584 75.4424
-76.9840 0.4784 75.4424
-76.9839 18.1626 75.4428
-76.9839 0.4726 75.4428
-76.9838 18.1661 75.4433
-76.9838 0.4761 75.4433
-76.9837 18.1593 75.4437
-76.9837 0.4793 75.4437
-76.9836 18.1655 75.4442
-76.9836 0.4755 75.4442
-76.9835 18.1586 75.4447
-76.9835 0.4786 75.4447
-76.9834 18.1620 75.4451
-76.9833 18.1580 75.4456
-76.9832 18.1617 75.4461
-76.9831 18.1551 75.4465
-76.9830 18.1613 75.4470
-76.9829 18.1550 75.4475
-76.9828 18.1592 75.4480
-76.9827 18.1523 75.4484
-76.9826 18.1556 75.4489
-76.9825 18.1518 75.4494
-76.9824 18.1552 75.4498
-76.9824 18.1583 75.4503
-76.9823 18.1547 75.4508
-76.9822 18.1580 75.4512
-76.9821 18.1511 75.4517
-76.9820 18.1570 75.4522
-76.9819 18.1504 75.4526
-76.9818 18.1538 75.4531
-76.9817 18.1478 75.4536
-76.9816 18.1517 75.4540
-76.9815 18.1448 75.4545
-76.9814 18.1511 75.4550
-76.9813 18.1442 75.4554
-76.9812 18.1477 75.4559
-76.9811 18.1514 75.4563
-76.9810 18.1478 75.4569
-76.9809 18.1510 75.4573
-76.9808 18.1442 75.4578
-76.9807 18.1506 75.4583
-76.9806 18.1443 75.4587
-76.9805 18.1476 75.4592
-76.9804 18.1405 75.4596
-76.9803 18.1470 75.4601
-76.9802 18.1404 75.4606
-76.9801 18.1437 75.4610
-76.9800 18.1373 75.4615
-76.9799 18.1433 75.4620
-76.9798 18.1447 75.4624
-76.9797 18.1391 75.4629
-76.9796 18.1403 75.4634
-76.9795 18.1439 75.4639
-76.9795 18.1366 75.4643
-76.9794 18.1431 75.4648
-76.9793 18.1359 75.4653
-76.9792 18.1411 75.4657
-76.9791 18.1365 75.4662
-76.9790 18.1361 75.4666
-76.9789 18.1324 75.4671
-76.9788 18.1352 75.4674
-76.9787 18.1317 75.4679
-76.9786 18.1306 75.4684
-76.9785 18.1381 75.4691
-76.9783 18.1360 75.4699
-76.9782 18.1287 75.4704
-76.9781 18.1258 75.4707
-76.9781 18.1244 75.4711
-76.9780 18.0839 75.4716
-76.9778 18.0873 75.4723
-76.9777 18.0850 75.4727
-76.9776 18.0753 75.4735
-76.9775 18.0709 75.4737
-76.9775 18.0692 75.4739
-76.9775 18.0685 75.4741
-76.9774 18.0712 75.4744
-76.9773 18.0779 75.4746
-76.9773 18.0876 75.4749
-76.9772 18.0913 75.4753
-76.9771 18.1097 75.4760
-76.9768 18.0919 75.4771
-76.9767 18.0828 75.4779
-76.9766 18.0720 75.4783
-76.9765 18.0639 75.4789
-76.9764 18.0651 75.4794
-76.9763 18.0599 75.4799
-76.9762 18.0542 75.4803
-76.9761 18.0493 75.4808
-76.9760 18.0539 75.4813
-76.9759 18.2720 75.4819
-76.9758 18.4102 75.4823
-79.8157 16.4349 75.4828
-76.9757 22.3649 75.4828
-85.7356 16.5673 75.4833
-76.9756 22.4073 75.4833
-84.8955 16.7082 75.4838
-76.9755 22.4582 75.4838
-84.1954 16.8242 75.4843
-76.9754 22.4942 75.4843
-83.2953 16.9359 75.4847
-76.9753 22.5259 75.4847
-82.6952 17.0408 75.4852
-76.9752 22.5608 75.4852
-82.3251 17.1311 75.4857
-76.9751 22.5911 75.4857
-81.6950 17.2247 75.4862
-76.9750 22.6247 75.4862
-81.1549 17.3049 75.4866
-76.9749 22.6449 75.4866
-80.6248 17.3821 75.4871
-76.9748 22.6721 75.4871
-80.1147 17.4574 75.4876
-76.9747 22.6974 75.4876
-79.6746 17.5231 75.4881
-76.9746 22.7131 75.4881
-79.2545 17.5850 75.4885
-76.9745 22.7350 75.4885
-79.2744 17.6497 75.4890
-73.5344 17.6497 75.4890
-76.9744 22.7597 75.4890
-79.2743 17.7061 75.4895
-73.5343 17.7061 75.4895
-76.9743 22.7761 75.4895
-79.2842 17.7477 75.4899
-72.7042 17.7477 75.4899
-76.9742 22.7877 75.4899
-79.2941 17.8035 75.4905
-76.9741 22.8035 75.4905
-79.2550 17.8667 75.4897
-76.9236 22.9934 75.5412
-79.2247 17.8591 75.4893
-76.8652 23.3119 75.5993
-79.2331 17.7403 75.4902
-76.8594 23.4014 75.6615
-81.2505 17.5493 75.4916
-71.4824 17.3539 75.4916
-76.8530 23.3798 75.6692
-83.5681 17.3160 75.4929
-76.8438 23.4599 75.6813
-86.2357 17.0179 75.4942
-76.8348 23.4682 75.6933
-76.9306 18.1831 75.5481
-76.9229 18.0293 75.5584
-84.9613 15.6074 75.4972
-76.9111 18.0357 75.5749
-76.8982 18.0483 75.5932
-76.8842 18.0569 75.6132
-76.8714 18.0311 75.6315
-76.8563 18.0834 75.6534
-76.8400 18.0919 75.6771
-76.8247 18.1072 75.6995
-76.8090 18.1199 75.7225
-77.1458 0.4796 75.2165
-77.1293 0.4775 75.2409
-77.1130 0.4787 75.2649
-77.0945 0.4781 75.2923
-77.0777 0.4778 75.3171
-77.0607 0.4810 75.3423
-77.0426 0.4812 75.3692
-77.0229 0.4782 75.3985
-77.0052 0.4810 75.4248
-71.1131 2.1314 75.5044
-76.9874 0.4794 75.4513
-76.9689 0.4764 75.4788
-76.9624 0.1631 68.7461
-67.7771 -0.1918 75.4795
-73.1691 0.0286 71.6987
-76.9343 0.4744 75.4907
-77.0087 0.2203 70.1446
-69.6233 -0.1602 75.3939
-74.0194 0.0839 72.4844
-76.9271 0.4761 75.4805
-76.9843 0.1799 71.1876
-71.1248 -0.0756 75.3918
-74.6402 0.1005 73.1170
-70.9258 0.9760 81.1267
-73.1666 0.3639 75.3928
-74.0098 0.0421 72.4816
-72.1651 0.9570 79.9299
-71.9074 0.5484 75.3495
-71.2232 0.0326 69.5164
-67.3240 0.4954 75.2951
