-77.0241 0.4812 75.3081
-77.0242 0.4754 75.3081
-77.0251 0.4768 75.3078
-77.0259 0.4760 75.3076
-77.0268 0.4805 75.3074
-77.0276 0.4757 75.3071
-77.0286 0.4828 75.3069
-77.0294 0.4825 75.3066
-77.0303 0.4831 75.3064
-77.0313 0.4757 75.3061
-77.0321 0.4820 75.3059
-77.0330 0.4795 75.3056
-77.0340 0.4785 75.3054
-77.0348 0.4822 75.3052
-77.0358 0.4798 75.3049
-77.0367 0.4841 75.3046
-77.0375 0.4762 75.3044
-77.0384 0.4795 75.3042
-77.0394 0.4845 75.3039
-77.0403 0.4771 75.3036
-77.0413 0.4793 75.3034
-77.0421 0.4806 75.3031
-77.0431 0.4822 75.3029
-71.1140 2.2629 75.3026
-77.0440 0.4829 75.3026
-71.1149 2.2835 75.3024
-77.0449 0.4835 75.3024
-71.1158 2.3041 75.3021
-77.0458 0.4841 75.3021
-71.1167 2.3243 75.3019
-77.0467 0.4843 75.3019
-71.1176 2.3441 75.3016
-77.0476 0.4841 75.3016
-71.1185 2.3643 75.3014
-77.0485 0.4843 75.3014
-71.1195 2.3841 75.3011
-77.0495 0.4841 75.3011
-71.1204 2.4053 75.3009
-77.0504 0.4753 75.3009
-71.1114 2.4253 75.3006
-77.0514 0.4753 75.3006
-71.1123 2.4445 75.3003
-77.0523 0.4845 75.3003
-71.1132 2.4640 75.3001
-77.0532 0.4840 75.3001
-71.1141 2.4831 75.2998
-77.0541 0.4831 75.2998
-71.1150 2.5018 75.2996
-77.0550 0.4818 75.2996
-71.1159 2.5208 75.2993
-77.0559 0.4808 75.2993
-71.1168 2.5394 75.2991
-77.0568 0.4794 75.2991
-71.1178 2.5582 75.2989
-77.0578 0.4782 75.2989
-71.1187 2.5772 75.2986
-77.0587 0.4772 75.2986
-71.1197 2.5939 75.2983
-77.0597 0.4839 75.2983
-71.1204 2.6116 75.2981
-77.0604 0.4816 75.2981
-71.1112 2.6319 75.2979
-77.0612 0.4819 75.2979
-71.1121 2.6509 75.2977
-77.0621 0.4809 75.2977
-71.1129 2.6696 75.2974
-77.0629 0.4796 75.2974
-71.1138 2.6900 75.2972
-77.0638 0.4800 75.2972
-71.1146 2.7090 75.2970
-77.0646 0.4790 75.2970
-71.1155 2.7275 75.2967
-77.0655 0.4775 75.2967
-71.1163 2.7463 75.2965
-77.0663 0.4763 75.2965
-71.1172 2.7650 75.2963
-77.0672 0.4750 75.2963
-71.1181 2.7836 75.2960
-77.0681 0.4836 75.2960
-71.1190 2.8022 75.2958
-77.0690 0.4822 75.2958
-71.1198 2.8195 75.2955
-77.0698 0.4795 75.2955
-71.1107 2.8382 75.2953
-77.0707 0.4782 75.2953
-71.1116 2.8567 75.2951
-77.0716 0.4767 75.2951
-71.1125 2.8754 75.2948
-77.0725 0.4754 75.2948
-71.1134 2.8953 75.2945
-77.0734 0.4753 75.2945
-71.1143 2.9135 75.2943
-77.0743 0.4835 75.2943
-71.1152 2.9324 75.2941
-77.0752 0.4824 75.2941
-71.1161 2.9505 75.2938
-77.0761 0.4805 75.2938
-71.1170 2.9693 75.2936
-77.0770 0.4793 75.2936
-71.1179 2.9877 75.2933
-77.0779 0.4777 75.2933
-71.1188 3.0062 75.2931
-77.0788 0.4762 75.2931
-71.1198 3.0254 75.2928
-77.0798 0.4754 75.2928
-71.1107 3.0439 75.2925
-77.0807 0.4839 75.2925
-71.1116 3.0626 75.2923
-77.0816 0.4826 75.2923
-77.0825 0.4810 75.2920
-77.0835 0.4795 75.2918
-77.0844 0.4784 75.2915
-77.0852 0.4751 75.2913
-77.0862 0.4840 75.2910
-77.0872 0.4831 75.2908
-77.0880 0.4801 75.2905
-77.0890 0.4792 75.2903
-77.0899 0.4781 75.2900
-77.0908 0.4754 75.2898
-77.0917 0.4745 75.2895
-77.0927 0.4835 75.2893
-77.0936 0.4809 75.2890
-77.0945 0.4799 75.2888
-77.0955 0.4788 75.2885
-77.0964 0.4777 75.2882
-77.0973 0.4753 75.2880
-77.0982 0.4841 75.2877
-77.0991 0.4815 75.2875
-77.1001 0.4806 75.2872
-77.1009 0.4782 75.2870
-77.1019 0.4779 75.2867
-77.1029 0.4770 75.2865
-77.1037 0.4841 75.2862
-77.1047 0.4835 75.2860
-77.1057 0.4826 75.2857
-77.1065 0.4801 75.2855
-77.1075 0.4797 75.2852
-77.1084 0.4770 75.2850
-77.1093 0.4750 75.2847
-77.1103 0.4834 75.2845
-77.1112 0.4830 75.2842
-77.1121 0.4810 75.2839
-77.1130 0.4789 75.2837
-77.1140 0.4787 75.2834
-77.1149 0.4763 75.2832
-77.1159 0.4764 75.2829
-77.1169 0.4759 75.2826
-77.1178 0.4838 75.2824
-77.1188 0.4837 75.2821
-77.1196 0.4813 75.2819
-77.1206 0.4809 75.2816
-77.1215 0.4790 75.2814
-77.1224 0.4771 75.2811
-77.1233 0.4751 75.2809
-77.1243 0.4751 75.2806
-77.1252 0.4831 75.2804
-77.1262 0.4827 75.2801
-77.1271 0.4809 75.2798
-77.1280 0.4786 75.2796
-77.1290 0.4783 75.2793
-77.1299 0.4765 75.2791
-77.1308 0.4762 75.2788
-77.1317 0.4741 75.2786
-77.1327 0.4826 75.2783
-77.1336 0.4807 75.2781
-77.1345 0.4792 75.2778
-77.1354 0.4774 75.2776
-77.1364 0.4775 75.2773
-77.1373 0.4753 75.2771
-77.1383 0.4754 75.2768
-77.1392 0.4835 75.2765
-77.1401 0.4815 75.2763
-77.1410 0.4797 75.2760
-77.1420 0.4799 75.2758
-77.1429 0.4782 75.2755
-77.1438 0.4768 75.2753
-77.1447 0.4748 75.2750
-77.1456 0.4834 75.2748
-77.1466 0.4835 75.2745
-77.1475 0.4814 75.2743
-77.1484 0.4796 75.2740
-77.1494 0.4795 75.2737
-77.1503 0.4777 75.2735
-77.1512 0.4759 75.2732
-77.1522 0.4763 75.2730
-77.1531 0.4746 75.2727
-77.1541 0.4834 75.2725
-77.1550 0.4818 75.2722
-77.1559 0.4802 75.2720
-77.1568 0.4788 75.2717
-77.1577 0.4772 75.2715
-77.1586 0.4759 75.2712
-77.1595 0.4742 75.2710
-77.1606 0.4747 75.2707
-77.1614 0.4815 75.2704
-77.1624 0.4818 75.2702
-77.1633 0.4803 75.2699
-77.1642 0.4778 75.2697
-77.1651 0.4768 75.2694
-77.1660 0.4742 75.2692
-77.1670 0.4739 75.2689
-77.1679 0.4818 75.2687
-77.1688 0.4797 75.2684
-77.1698 0.4791 75.2682
-77.1707 0.4787 75.2679
-77.1716 0.4763 75.2676
-77.1725 0.4752 75.2674
-77.1735 0.4749 75.2671
-77.1744 0.4740 75.2669
-77.1754 0.4837 75.2666
-77.1763 0.4814 75.2664
-77.1772 0.4810 75.2661
-77.1781 0.4788 75.2659
-77.1791 0.4742 75.2656
-77.1797 0.4831 75.2654
-77.1803 0.4795 75.2653
-77.1809 0.4741 75.2651
-77.1815 0.4783 75.2649
-77.1822 0.4754 75.2647
-77.1828 0.4763 75.2646
-77.1836 0.4808 75.2643
-77.1843 0.4772 75.2641
-77.1851 0.4816 75.2639
-77.1859 0.4758 75.2637
-77.1866 0.4792 75.2635
-77.1874 0.4822 75.2633
-77.1882 0.4751 75.2631
-77.1891 0.4773 75.2628
-77.1899 0.4793 75.2626
-77.1907 0.4812 75.2624
-77.1916 0.4825 75.2621
-77.1925 0.4741 75.2619
-77.1933 0.4833 75.2617
-77.1941 0.4742 75.2614
-77.1951 0.4757 75.2612
-77.1960 0.4770 75.2609
-77.1968 0.4754 75.2607
-77.1977 0.4762 75.2605
-77.1987 0.4771 75.2602
-77.1996 0.4775 75.2599
-77.2004 0.4755 75.2597
-77.2013 0.4761 75.2595
-77.2022 0.4748 75.2592
-77.2032 0.4755 75.2590
-77.2040 0.4836 75.2587
-77.2049 0.4834 75.2585
-77.2058 0.4822 75.2582
-77.2068 0.4814 75.2580
-77.2077 0.4805 75.2577
-77.2086 0.4792 75.2575
-77.2095 0.4794 75.2572
-77.2104 0.4789 75.2570
-77.2113 0.4774 75.2567
-77.2122 0.4760 75.2565
-77.2132 0.4766 75.2562
-77.2141 0.4767 75.2560
-77.2151 0.4766 75.2557
-77.2160 0.4747 75.2555
-77.2169 0.4833 75.2552
-77.2178 0.4737 75.2549
-77.2187 0.4815 75.2547
-77.2194 0.4798 75.2545
-77.2201 0.4810 75.2543
-77.2208 0.4826 75.2541
-77.2214 0.4736 75.2540
-77.2221 0.4822 75.2538
-77.2228 0.4835 75.2536
-77.2235 0.4826 75.2534
-77.2243 0.4740 75.2532
-77.2250 0.4834 75.2530
-77.2258 0.4738 75.2528
-77.2266 0.4746 75.2525
-77.2275 0.4750 75.2523
-77.2282 0.4830 75.2521
-77.2291 0.4834 75.2519
-77.2299 0.4833 75.2516
-77.2308 0.4833 75.2514
-77.2316 0.4833 75.2512
-77.2325 0.4829 75.2509
-77.2334 0.4824 75.2507
-77.2343 0.4816 75.2504
-77.2352 0.4803 75.2502
-77.2361 0.4793 75.2500
-77.2369 0.4763 75.2497
-77.2377 0.4748 75.2495
-77.2386 0.4749 75.2492
-77.2395 0.4747 75.2490
-77.2405 0.4746 75.2487
-77.2414 0.4743 75.2485
-77.2423 0.4740 75.2483
-77.2432 0.4833 75.2480
-77.2441 0.4829 75.2477
-77.2450 0.4797 75.2475
-77.2458 0.4760 75.2473
-77.2465 0.4739 75.2471
-77.2473 0.4736 75.2469
-77.2480 0.4829 75.2467
-77.2489 0.4826 75.2464
-77.2497 0.4820 75.2462
-77.2505 0.4796 75.2460
-77.2514 0.4808 75.2458
-77.2521 0.4780 75.2456
-77.2530 0.4770 75.2453
-77.2538 0.4767 75.2451
-77.2547 0.4760 75.2448
-77.2556 0.4750 75.2446
-77.2566 0.4765 75.2443
-77.2574 0.4741 75.2441
-77.2584 0.4744 75.2438
-77.2592 0.4824 75.2436
-77.2601 0.4809 75.2434
-77.2610 0.4806 75.2431
-77.2619 0.4785 75.2429
-77.2628 0.4778 75.2426
-77.2637 0.4773 75.2424
-77.2646 0.4769 75.2421
-77.2655 0.4761 75.2419
-77.2664 0.4753 75.2416
-77.2674 0.4747 75.2414
-77.2683 0.4738 75.2411
-77.2692 0.4829 75.2409
-77.2701 0.4805 75.2406
-77.2710 0.4797 75.2404
-77.2719 0.4788 75.2401
-77.2728 0.4781 75.2399
-77.2738 0.4774 75.2396
-77.2747 0.4765 75.2394
-77.2756 0.4760 75.2391
-77.2766 0.4752 75.2388
-77.2775 0.4744 75.2386
-77.2783 0.4815 75.2384
-77.2793 0.4806 75.2381
-77.2802 0.4801 75.2378
-77.2812 0.4800 75.2376
-77.2821 0.4789 75.2373
-77.2830 0.4781 75.2371
-77.2839 0.4760 75.2368
-77.2849 0.4754 75.2366
-77.2857 0.4830 75.2363
-77.2867 0.4821 75.2361
-77.2876 0.4814 75.2358
-77.2885 0.4806 75.2356
-77.2895 0.4801 75.2353
-77.2904 0.4792 75.2350
-77.2913 0.4768 75.2348
-77.2922 0.4758 75.2346
-77.2932 0.4767 75.2343
-77.2941 0.4742 75.2340
-77.2950 0.4733 75.2338
-77.2959 0.4824 75.2335
-77.2969 0.4817 75.2333
-77.2978 0.4810 75.2330
-77.2988 0.4804 75.2328
-77.2996 0.4776 75.2325
-77.3006 0.4770 75.2323
-77.3015 0.4752 75.2320
-77.3025 0.4753 75.2317
-77.3033 0.4827 75.2315
-77.3043 0.4820 75.2312
-77.3052 0.4817 75.2310
-77.3061 0.4807 75.2307
-77.3071 0.4800 75.2305
-77.3080 0.4782 75.2302
-77.3090 0.4782 75.2300
-77.3099 0.4759 75.2297
-77.3108 0.4758 75.2295
-77.3117 0.4750 75.2292
-77.3126 0.4827 75.2290
-77.3135 0.4820 75.2287
-77.3145 0.4814 75.2284
-77.3154 0.4806 75.2282
-77.3164 0.4800 75.2279
-77.3172 0.4777 75.2277
-77.3182 0.4776 75.2274
-77.3191 0.4755 75.2272
-77.3201 0.4758 75.2269
-77.3210 0.4737 75.2267
-77.3219 0.4733 75.2264
-77.3229 0.4828 75.2261
-77.3238 0.4822 75.2259
-77.3247 0.4797 75.2257
-77.3256 0.4794 75.2254
-77.3265 0.4775 75.2251
-77.3275 0.4774 75.2249
-77.3284 0.4752 75.2246
-77.3293 0.4748 75.2244
-77.3302 0.4741 75.2241
-77.3312 0.4741 75.2239
-77.3321 0.4818 75.2236
-77.3330 0.4803 75.2234
-77.3340 0.4801 75.2231
-77.3349 0.4800 75.2228
-77.3359 0.4792 75.2226
-77.3368 0.4785 75.2223
-77.3377 0.4780 75.2221
-77.3386 0.4770 75.2218
-77.3396 0.4761 75.2216
-77.3405 0.4755 75.2213
-77.3414 0.4746 75.2211
-77.3424 0.4739 75.2208
-77.3432 0.4808 75.2206
-77.3442 0.4807 75.2203
-77.3451 0.4799 75.2200
-77.3460 0.4792 75.2198
-77.3469 0.4778 75.2196
-77.3479 0.4771 75.2193
-77.3488 0.4760 75.2190
-77.3497 0.4750 75.2188
-77.3507 0.4741 75.2185
-77.3516 0.4730 75.2183
-77.3525 0.4818 75.2180
-77.3534 0.4810 75.2178
-77.3544 0.4804 75.2175
-77.3553 0.4794 75.2172
-77.3562 0.4766 75.2170
-77.3572 0.4775 75.2167
-77.3581 0.4763 75.2165
-77.3590 0.4734 75.2163
-77.3599 0.4824 75.2160
-77.3608 0.4811 75.2158
-77.3617 0.4802 75.2155
-77.3628 0.4810 75.2152
-77.3637 0.4798 75.2150
-77.3646 0.4773 75.2147
-77.3656 0.4779 75.2144
-77.3664 0.4748 75.2142
-77.3673 0.4737 75.2140
-77.3683 0.4827 75.2137
-77.3693 0.4736 75.2134
-77.3701 0.4806 75.2132
-77.3710 0.4794 75.2129
-77.3720 0.4783 75.2127
-77.3729 0.4773 75.2124
-77.3739 0.4782 75.2122
-77.3749 0.4770 75.2119
-77.3758 0.4748 75.2117
-77.3766 0.4823 75.2114
-77.3776 0.4822 75.2111
-77.3786 0.4816 75.2109
-77.3795 0.4807 75.2106
-77.3804 0.4776 75.2104
-77.3813 0.4771 75.2101
-77.3822 0.4761 75.2099
-77.3832 0.4751 75.2096
-77.3841 0.4747 75.2094
-77.3851 0.4737 75.2091
-77.3860 0.4731 75.2088
-77.3869 0.4806 75.2086
-77.3878 0.4797 75.2084
-77.3887 0.4786 75.2081
-77.3897 0.4781 75.2078
-77.3906 0.4771 75.2076
-77.3916 0.4763 75.2073
-77.3925 0.4757 75.2071
-77.3935 0.4745 75.2068
-77.3944 0.4734 75.2066
-77.3953 0.4727 75.2063
-77.3963 0.4819 75.2061
-77.3971 0.4792 75.2058
-77.3981 0.4783 75.2056
-77.3990 0.4775 75.2053
-77.3999 0.4764 75.2050
-77.4009 0.4754 75.2048
-77.4018 0.4744 75.2045
-77.4027 0.4734 75.2043
-77.4037 0.4727 75.2040
-77.4046 0.4815 75.2038
-77.4055 0.4805 75.2035
-77.4065 0.4799 75.2033
-77.4074 0.4774 75.2030
-77.4083 0.4766 75.2028
-77.4092 0.4757 75.2025
-77.4102 0.4748 75.2022
-77.4111 0.4737 75.2020
-77.4121 0.4734 75.2017
-77.4129 0.4808 75.2015
-77.4139 0.4808 75.2012
-77.4148 0.4783 75.2010
-77.4157 0.4773 75.2007
-77.4167 0.4766 75.2005
-77.4176 0.4761 75.2002
-77.4186 0.4752 75.2000
-77.4195 0.4743 75.1997
-77.4204 0.4731 75.1994
-77.4213 0.4821 75.1992
-77.4223 0.4813 75.1989
-77.4232 0.4802 75.1987
-77.4241 0.4791 75.1984
-77.4251 0.4783 75.1982
-77.4260 0.4773 75.1979
-77.4269 0.4766 75.1976
-77.4279 0.4747 75.1974
-77.4287 0.4821 75.1972
-77.4297 0.4816 75.1969
-77.4307 0.4812 75.1966
-77.4316 0.4807 75.1964
-77.4324 0.4780 75.1961
-77.4335 0.4792 75.1959
-77.5305 18.0258 75.1692
-77.5314 18.0249 75.1690
-77.5323 18.0224 75.1687
-77.5333 18.0235 75.1685
-77.5342 18.0224 75.1682
-77.5351 18.0218 75.1680
-77.5360 18.0206 75.1677
-77.5369 18.0194 75.1675
-77.5378 18.0186 75.1672
-77.5387 18.0173 75.1670
-77.5396 18.0162 75.1667
-77.5405 18.0133 75.1665
-77.5414 18.0122 75.1662
-77.5424 18.0132 75.1660
-77.5433 18.0105 75.1657
-77.5442 18.0196 75.1655
-77.5451 18.0183 75.1652
-77.5460 18.0174 75.1650
-77.5469 18.0160 75.1647
-77.5480 18.0168 75.1644
-77.5489 18.0157 75.1642
-77.5498 18.0144 75.1639
-77.5507 18.0129 75.1637
-77.5517 18.0122 75.1634
-77.5526 18.0109 75.1632
-77.5534 18.0081 75.1629
-77.5544 18.0074 75.1627
-77.5553 18.0061 75.1624
-77.5562 18.0054 75.1622
-77.5572 18.0042 75.1619
-77.5581 18.0030 75.1617
-77.5590 18.0024 75.1614
-77.5600 18.0017 75.1611
-77.5609 18.0090 75.1609
-77.5618 18.0082 75.1606
-77.5627 18.0075 75.1604
-77.5637 18.0067 75.1601
-77.5646 18.0059 75.1599
-77.5655 18.0048 75.1596
-77.5665 18.0039 75.1594
-77.5674 18.0027 75.1591
-77.5683 18.0017 75.1589
-77.5693 18.0007 75.1586
-77.5702 17.9997 75.1583
-77.5711 17.9985 75.1581
-77.5720 17.9976 75.1578
-77.5730 17.9965 75.1576
-77.5739 17.9954 75.1573
-77.5748 17.9945 75.1571
-77.5757 17.9933 75.1568
-77.5767 17.9922 75.1566
-77.5776 17.9909 75.1563
-77.5785 17.9896 75.1561
-77.5794 17.9886 75.1558
-77.5804 17.9876 75.1555
-77.5813 17.9967 75.1553
-77.5822 17.9954 75.1550
-77.5831 17.9941 75.1548
-77.5841 17.9934 75.1545
-77.5850 17.9924 75.1543
-77.5860 17.9913 75.1540
-77.5869 17.9903 75.1538
-77.5878 17.9892 75.1535
-77.5887 17.9879 75.1533
-77.5897 17.9874 75.1530
-77.5906 17.9861 75.1527
-77.5915 17.9850 75.1525
-77.5925 17.9841 75.1522
-77.5933 17.9814 75.1520
-77.5943 17.9806 75.1517
-77.5952 17.9794 75.1515
-77.5962 17.9788 75.1512
-77.5971 17.9774 75.1510
-77.5980 17.9865 75.1507
-77.5990 17.9857 75.1505
-77.5999 17.9847 75.1502
-77.6008 17.9833 75.1499
-77.6017 17.9820 75.1497
-77.6026 17.9811 75.1494
-77.6035 17.9797 75.1492
-77.6045 17.9786 75.1489
-77.6054 17.9778 75.1487
-77.6064 17.9771 75.1484
-77.6073 17.9761 75.1482
-77.6083 17.9751 75.1479
-77.6092 17.9742 75.1476
-77.6101 17.9728 75.1474
-77.6110 17.9717 75.1471
-77.6120 17.9709 75.1469
-77.6129 17.9695 75.1466
-77.6138 17.9682 75.1464
-77.6147 17.9673 75.1461
-77.6157 17.9660 75.1459
-77.6166 17.9750 75.1456
-77.6175 17.9724 75.1454
-77.6185 17.9733 75.1451
-77.6194 17.9721 75.1449
-77.6202 17.9690 75.1446
-77.6212 17.9697 75.1443
-77.6222 17.9685 75.1441
-77.6231 17.9673 75.1438
-77.6240 17.9658 75.1436
-77.6249 17.9643 75.1433
-77.6258 17.9635 75.1431
-77.6268 17.9624 75.1428
-77.6277 17.9614 75.1426
-77.6287 17.9605 75.1423
-77.6296 17.9593 75.1421
-77.6305 17.9580 75.1418
-77.6314 17.9571 75.1415
-77.6324 17.9559 75.1413
-77.6333 17.9647 75.1410
-77.6342 17.9635 75.1408
-77.6351 17.9620 75.1405
-77.6360 17.9610 75.1403
-77.6370 17.9596 75.1400
-77.6379 17.9585 75.1398
-77.6388 17.9577 75.1395
-77.6398 17.9565 75.1393
-77.6407 17.9553 75.1390
-77.6416 17.9542 75.1388
-77.6425 17.9529 75.1385
-77.6435 17.9517 75.1383
-77.6444 17.9507 75.1380
-77.6453 17.9497 75.1377
-77.6463 17.9487 75.1375
-77.6472 17.9479 75.1372
-77.6481 17.9466 75.1370
-77.6490 17.9539 75.1367
-77.6499 17.9529 75.1365
-77.6509 17.9519 75.1362
-77.6518 17.9513 75.1360
-77.6527 17.9490 75.1357
-77.6536 17.9480 75.1355
-77.6546 17.9471 75.1352
-77.6555 17.9462 75.1349
-77.6564 17.9451 75.1347
-77.6574 17.9444 75.1344
-77.6583 17.9433 75.1342
-77.6592 17.9427 75.1339
-77.6602 17.9420 75.1337
-77.6611 17.9408 75.1334
-77.6620 17.9397 75.1332
-77.6630 17.9391 75.1329
-77.6639 17.9382 75.1326
-77.6648 17.9452 75.1324
-77.6658 17.9361 75.1321
-77.6667 17.9351 75.1319
-77.6676 17.9342 75.1316
-77.6686 17.9331 75.1314
-77.6694 17.9400 75.1311
-77.6703 17.9393 75.1309
-77.6713 17.9383 75.1306
-77.6722 17.9379 75.1303
-77.6732 17.9369 75.1301
-77.6741 17.9357 75.1298
-77.6750 17.9352 75.1296
-77.6760 17.9344 75.1293
-77.6769 17.9333 75.1291
-77.6778 17.9323 75.1288
-77.6788 17.9313 75.1286
-77.6797 17.9302 75.1283
-77.6806 17.9295 75.1280
-77.6816 17.9288 75.1278
-77.6825 17.9261 75.1275
-77.6835 17.9269 75.1273
-77.6844 17.9260 75.1270
-77.6853 17.9249 75.1268
-77.6863 17.9239 75.1265
-77.6871 17.9312 75.1263
-77.6881 17.9222 75.1260
-77.6891 17.9211 75.1257
-77.6900 17.9200 75.1255
-77.6909 17.9274 75.1252
-77.6918 17.9271 75.1250
-77.6927 17.9259 75.1247
-77.6937 17.9248 75.1245
-77.6946 17.9240 75.1242
-77.6955 17.9225 75.1240
-77.6964 17.9215 75.1237
-77.6974 17.9204 75.1235
-77.6983 17.9193 75.1232
-77.6992 17.9182 75.1230
-77.7002 17.9173 75.1227
-77.7010 17.9145 75.1225
-77.7020 17.9137 75.1222
-77.7030 17.9147 75.1219
-77.7038 17.9117 75.1217
-77.7048 17.9206 75.1214
-77.7058 17.9115 75.1212
-77.7067 17.9106 75.1209
-77.7076 17.8792 75.1207
-77.7086 17.8782 75.1204
-77.7094 17.8752 75.1202
-77.7104 17.8763 75.1199
-77.7113 17.8734 75.1197
-77.7122 17.8726 75.1194
-77.7131 17.8713 75.1191
-77.7141 17.8702 75.1189
-77.7058 17.8793 75.1021
-77.6855 17.8803 75.0855
-77.6753 17.9318 75.0827
-77.6672 17.9380 75.0794
-77.6589 17.9435 75.0742
-77.6514 17.9582 75.0674
-77.6448 17.9669 75.0596
-77.6387 17.9878 75.0501
-77.6329 18.0021 75.0391
-77.6280 18.0128 75.0280
-77.6129 0.4843 75.3125
-77.6101 0.4807 75.2975
-77.6077 0.4825 75.2823
-77.6053 0.4789 75.2661
-77.6033 0.4805 75.2499
-77.6013 0.4808 75.2329
-77.5997 0.4811 75.2176
-77.5980 0.4831 75.1988
-71.1163 3.1396 75.1929
-77.5965 0.4801 75.1813
-77.5953 0.4849 75.1648
-77.5941 0.4811 75.1471
-69.3834 0.5221 75.2105
-77.5940 0.4785 75.1316
-77.5935 0.4802 75.1327
